# .PCD v.7 - Point Cloud Data file format
VERSION .7
FIELDS x y z normal_x normal_y normal_z
SIZE 4 4 4 4 4 4
TYPE F F F F F F
COUNT 1 1 1 1 1 1
WIDTH 796
HEIGHT 1
VIEWPOINT 0 0 0 1 0 0 0
POINTS 796
DATA ascii
218.896393 13.577530 186.612701 -0.471883 0.877722 0.083251 
-39.137341 11.688990 301.580597 -0.106919 0.987850 -0.112783 
-166.328293 15.108680 278.422699 0.428980 0.870113 -0.242652 
201.777695 5.933198 -5.873734 -0.181459 0.983372 0.007214 
109.526901 5.000000 151.903397 -0.007684 0.999701 0.023227 
-2.373856 5.000000 -14.006200 0.000000 1.000000 0.000000 
208.720795 8.064962 197.308304 -0.302539 0.952488 0.035166 
-33.388309 5.000000 230.405899 -0.000000 1.000000 -0.000000 
-110.243103 5.000000 198.347397 -0.000000 1.000000 -0.000000 
-33.904049 5.000000 -44.406361 -0.000000 1.000000 -0.000000 
-86.033279 6.082092 283.280792 -0.031252 0.994111 -0.103761 
172.039703 12.176020 -74.331268 -0.314530 0.935469 0.161145 
-172.036301 11.521440 -100.745399 0.079817 0.899397 0.429784 
180.506607 5.000000 224.630005 -0.000282 1.000000 -0.000048 
84.069839 12.342900 127.547096 -0.979386 0.073088 -0.188310 
-159.644608 11.169260 2.820602 0.530369 0.844413 -0.075339 
-41.027981 8.083908 -97.942558 0.124143 0.942847 0.309237 
220.106796 18.224051 83.930313 -0.606648 0.774977 -0.177170 
84.069839 16.903990 142.747192 -0.970107 -0.210912 -0.120036 
-93.836182 5.000000 122.434502 -0.093498 0.993190 -0.069512 
152.713196 5.000000 110.931999 -0.000000 1.000000 -0.000000 
72.373840 5.000000 80.531464 -0.000000 1.000000 -0.000000 
-116.423798 5.000000 246.739197 0.000000 1.000000 0.000000 
186.766098 15.413110 52.893131 -0.000000 -0.000000 -1.000000 
-158.819504 10.866500 275.535400 0.353569 0.889356 -0.289889 
-27.638069 12.175620 -57.069851 -0.833208 -0.127380 0.538088 
145.382401 5.000000 32.393070 0.000000 1.000000 0.000000 
100.291199 15.462480 301.180298 -0.065851 0.973785 -0.217728 
-121.260399 5.000000 48.485111 -0.000000 1.000000 -0.000000 
114.911598 10.726780 286.619293 0.019977 0.928429 -0.370972 
106.496399 5.000000 49.574921 -0.000000 1.000000 -0.000000 
84.069839 15.305200 135.900803 -1.000000 -0.000000 -0.000000 
-48.982819 5.000000 163.916306 -0.000000 1.000000 -0.000000 
57.462551 5.078327 243.740906 0.002778 0.999751 -0.022134 
-123.924004 5.000000 41.258541 -0.000000 1.000000 -0.000000 
104.196701 8.009802 201.569794 -0.009097 0.242761 -0.970044 
-14.806880 5.225249 67.403481 -0.999944 -0.001691 -0.010482 
137.853897 5.000000 210.558197 -0.000000 1.000000 -0.000000 
-14.260160 5.000000 161.529205 0.000000 1.000000 0.000000 
113.530098 15.956400 221.364594 0.960976 0.053459 0.271417 
-5.721863 5.000000 -12.110090 -0.000000 1.000000 -0.000000 
-120.308899 5.000000 8.082336 -0.000000 1.000000 -0.000000 
-6.406570 5.315813 254.252701 -0.010852 0.998248 -0.058173 
-8.935226 5.000000 40.447338 -0.000000 1.000000 -0.000000 
-41.960911 5.000000 104.760498 -0.000000 1.000000 -0.000000 
136.295105 11.772670 -4.546730 -0.008384 0.009886 0.999916 
188.136902 5.000000 49.540211 0.172612 0.959094 -0.224373 
87.376648 5.000000 -1.555557 -0.000000 1.000000 -0.000000 
-125.341202 5.000000 221.077896 -0.000000 1.000000 -0.000000 
-161.056000 13.304910 26.017910 0.569124 0.822004 0.020187 
-5.805298 16.574150 295.402313 -0.087176 0.964750 -0.248310 
-35.974209 5.000000 22.412640 -0.000000 1.000000 -0.000000 
-149.893204 16.315201 291.359009 0.277784 0.800743 -0.530704 
-147.768906 6.607233 108.167999 0.220448 0.974457 0.042850 
56.715969 5.000000 16.873520 0.000000 1.000000 0.000000 
-97.884140 5.000000 201.100601 -0.000000 1.000000 -0.000000 
116.945602 5.582518 -73.842552 -0.075822 0.980277 0.182504 
80.456848 5.000000 58.499161 -0.000000 1.000000 -0.000000 
-120.012398 5.000000 -23.460390 -0.336906 0.941529 -0.004066 
-166.687805 10.381670 185.751907 0.484296 0.872680 -0.062341 
-37.769810 5.000000 184.376297 -0.000000 1.000000 -0.000000 
124.555199 5.000000 161.000900 0.000000 1.000000 0.000000 
-72.327011 5.000000 133.808502 0.000000 1.000000 0.000000 
-77.988098 5.000000 101.851402 -0.000000 1.000000 -0.000000 
43.114529 5.000000 -2.259262 0.000000 1.000000 0.000000 
23.135740 5.000000 113.992599 0.039158 0.999223 0.004558 
15.423220 5.000000 154.383896 0.000000 1.000000 0.000000 
150.046707 13.306200 84.049530 -0.799506 -0.078117 0.595556 
14.842290 5.000000 -34.024799 0.000000 1.000000 0.000000 
-138.339600 5.531026 29.311480 0.105825 0.994380 0.003134 
73.874367 6.488354 -61.669849 0.000000 0.000000 1.000000 
-99.208542 5.000000 168.552597 0.000000 1.000000 0.000000 
70.050377 5.000000 25.326401 -0.000000 1.000000 -0.000000 
-122.505600 5.000000 195.339996 -0.000000 1.000000 -0.000000 
-105.195702 5.000000 252.474503 -0.000067 1.000000 -0.000122 
-40.690441 5.000000 78.383560 -0.000000 1.000000 -0.000000 
-98.500214 5.000000 -4.411301 -0.000000 1.000000 -0.000000 
-9.501312 7.391753 270.407410 -0.040017 0.968608 -0.245352 
10.170380 5.000000 -72.400650 -0.000000 1.000000 -0.000000 
33.069759 5.000000 168.565903 0.000000 1.000000 0.000000 
86.698936 5.089250 245.753906 0.001495 0.999762 -0.021775 
84.446259 5.281287 -87.805527 -0.040278 0.997598 0.056361 
-45.589802 5.000000 52.647419 -0.000000 1.000000 -0.000000 
150.046707 17.873350 74.414139 -1.000000 -0.000000 -0.000000 
-148.906998 6.117970 127.070702 0.184818 0.981487 0.050258 
-67.258942 5.000000 160.003799 -0.000000 1.000000 -0.000000 
87.002319 5.000000 188.337296 -0.000000 1.000000 -0.000000 
25.557680 17.965651 312.455811 0.136629 0.987858 0.073956 
42.067081 5.000000 181.752304 -0.000000 1.000000 -0.000000 
-143.444000 5.406272 262.149902 0.092101 0.993532 -0.066425 
-84.018494 5.000000 5.828293 -0.000000 1.000000 -0.000000 
18.569790 5.000000 161.193604 0.000000 1.000000 0.000000 
-142.695602 10.917700 -91.946793 -0.155297 0.868211 0.471266 
175.327499 19.129040 84.306877 0.000000 0.000000 1.000000 
198.151199 9.806881 116.453903 -0.437325 0.895109 -0.086758 
-128.589798 5.000000 198.307404 -0.000000 1.000000 -0.000000 
45.374481 5.000000 31.909809 0.000000 1.000000 0.000000 
-72.490799 5.036623 249.637405 -0.003154 0.999946 -0.009856 
79.767548 5.000000 12.113140 0.000000 1.000000 0.000000 
236.448502 17.080441 -62.928219 -0.147021 0.983008 -0.109910 
34.628780 5.000000 122.056000 -0.000000 1.000000 -0.000000 
130.074097 5.000000 68.624741 0.000000 1.000000 0.000000 
147.161606 5.000000 35.939098 0.000000 1.000000 0.000000 
17.100309 5.000000 145.755905 0.000000 1.000000 0.000000 
-86.483757 5.000000 37.474030 -0.000000 1.000000 -0.000000 
129.293106 7.030989 -60.434929 -0.590691 0.074900 -0.803414 
20.501980 5.000000 64.668327 0.199043 0.959420 -0.199739 
-53.262909 5.407300 261.899689 -0.003815 0.998460 -0.055346 
-47.648239 5.000000 4.195938 0.000000 1.000000 0.000000 
230.158203 18.594490 18.336531 -0.537941 0.842357 0.032459 
-145.245193 19.085230 -103.909698 -0.326829 0.720785 0.611270 
41.045959 5.000000 22.260941 0.000000 1.000000 0.000000 
216.324997 10.625020 -39.000969 -0.392451 0.919773 -0.000405 
50.079800 6.640189 -106.919098 -0.046328 0.959303 0.278553 
-14.806880 7.296162 76.074760 -0.971009 0.220840 -0.091495 
86.098511 6.951296 -97.831383 -0.159429 0.923235 0.349600 
63.439030 5.000000 77.707840 0.000000 1.000000 0.000000 
20.373871 5.000000 107.834297 0.634950 0.769860 0.064454 
-9.656830 5.000000 196.841995 0.000000 1.000000 0.000000 
-66.826340 5.000000 142.869400 0.000000 1.000000 0.000000 
205.884705 6.769096 39.856319 -0.269037 0.962837 -0.023751 
103.180801 7.765176 -90.762047 -0.195033 0.923942 0.329079 
-65.778809 11.356840 312.184692 -0.049215 0.994884 -0.088227 
144.877197 5.000000 98.254936 0.000000 1.000000 0.000000 
69.499939 5.000000 117.152702 0.000000 1.000000 0.000000 
202.693405 12.059330 -89.734322 -0.021822 0.833781 0.551665 
150.404404 11.697910 -79.689568 -0.055684 0.842620 0.535623 
-49.201401 5.000000 98.965973 -0.000000 1.000000 -0.000000 
-77.239563 5.340638 -72.555511 0.029067 0.996061 0.083767 
215.773895 13.013750 226.786102 -0.533137 0.832223 -0.152219 
152.516403 5.000000 140.511902 0.000000 1.000000 0.000000 
156.341599 8.572962 283.952301 -0.040327 0.956579 -0.288669 
113.760803 5.000000 41.673420 0.000000 1.000000 0.000000 
21.229610 5.000000 23.524920 -0.000000 1.000000 -0.000000 
85.211731 5.000000 -35.477482 -0.000000 1.000000 -0.000000 
-122.198997 5.000000 76.077293 0.000000 1.000000 0.000000 
2.984085 5.000000 137.137299 -0.000000 1.000000 0.000001 
-49.291729 5.000000 -66.004539 -0.000085 0.999999 0.001675 
106.530098 5.027952 140.347504 0.785197 0.607711 -0.118967 
-99.995697 5.000000 197.503006 -0.000000 1.000000 -0.000000 
35.467899 10.722960 273.186615 0.088365 0.938488 -0.333815 
23.657101 5.000000 55.131321 -0.000000 1.000000 -0.000000 
77.778931 5.000000 180.448196 -0.000000 1.000000 -0.000000 
45.938629 5.000000 63.098309 -0.000000 1.000000 -0.000000 
203.849594 10.646420 155.914597 -0.470834 0.863951 0.178617 
204.423096 12.186620 150.701401 -0.569872 0.793432 0.213802 
32.236691 5.000000 9.034149 0.000000 1.000000 0.000000 
-27.144230 14.312450 -113.724098 0.119960 0.815556 0.566107 
35.254150 5.605372 -100.886902 0.030908 0.988168 0.150228 
-92.869858 8.196884 135.450607 -0.995315 0.082676 0.050129 
-109.405403 5.000000 211.513397 -0.000000 1.000000 -0.000000 
-158.248093 9.104325 -25.015909 0.378694 0.925402 0.014875 
168.895905 8.013931 -73.961433 -0.109841 0.855918 0.505311 
-156.362396 7.097220 205.015396 0.304193 0.952268 -0.025530 
160.706894 8.029985 -54.374920 0.999939 -0.002915 -0.010631 
64.695221 12.361900 -117.108002 -0.191027 0.789637 0.583080 
39.601261 12.486680 279.802185 0.158824 0.949518 -0.270538 
36.411800 5.000000 76.832573 0.000000 1.000000 0.000000 
-89.419243 5.000000 13.473750 0.000000 1.000000 0.000000 
26.436069 5.000000 209.619797 -0.000000 1.000000 -0.000000 
-97.480713 18.682529 153.830200 0.000000 0.000000 1.000000 
-127.931702 10.921360 -88.369972 -0.068942 0.856262 0.511921 
16.205540 5.000000 47.761410 0.000000 1.000000 0.000000 
-76.568909 5.000000 69.309921 0.000000 1.000000 0.000000 
76.514648 7.213121 -102.558800 -0.131907 0.943385 0.304344 
74.435699 12.476510 -113.947998 -0.203302 0.798019 0.567304 
-85.894836 5.000000 182.898895 0.000000 1.000000 0.000000 
-68.330147 9.974277 194.155701 -0.995489 0.090214 0.029372 
-5.675659 10.394120 278.706512 -0.088443 0.926321 -0.366207 
-156.067993 8.530910 117.789398 0.399271 0.913844 0.073979 
-21.605440 5.000000 116.601097 -0.000000 1.000000 -0.000000 
-90.857033 5.000000 242.886002 0.000000 1.000000 0.000000 
-83.354950 5.000000 201.258194 -0.000000 1.000000 -0.000000 
-56.000019 5.000000 118.994598 -0.000000 1.000000 -0.000000 
167.167801 6.239205 271.349213 -0.050792 0.984619 -0.167168 
-37.182129 5.000000 236.899200 0.000000 1.000000 0.000000 
133.177307 5.000000 81.067230 0.000000 1.000000 0.000000 
6.652039 6.845024 -104.007896 0.043765 0.967613 0.248616 
-127.195000 13.866250 -92.253922 -0.083080 0.752328 0.653529 
90.984558 20.555559 -116.472099 -0.301141 0.695463 0.652415 
18.605320 5.000000 199.221497 0.000000 1.000000 0.000000 
96.030853 5.000000 157.086807 -0.000000 1.000000 -0.000000 
-167.426407 19.847570 -112.376297 -0.047110 0.748069 0.661946 
213.779999 13.845110 86.052513 -0.569144 0.802975 -0.176935 
32.889771 5.000000 155.520401 -0.000000 1.000000 -0.000000 
2.406891 5.000000 -84.820129 0.000161 0.999999 0.001381 
194.188507 5.431890 218.700302 -0.094666 0.995484 -0.007135 
219.835007 13.337110 47.840271 -0.546577 0.833880 -0.076792 
-42.481350 5.000000 -53.762821 -0.000000 1.000000 -0.000000 
205.830704 6.715235 -2.952011 -0.225733 0.974179 0.004534 
-86.714577 5.000000 27.137369 0.000000 1.000000 0.000000 
39.144531 5.000000 173.417206 -0.000000 1.000000 -0.000000 
109.809303 5.000000 140.697693 0.493679 0.867022 -0.067482 
-56.416111 5.000000 -20.393400 0.109154 0.994023 0.001759 
-164.148300 8.771593 176.721405 0.333967 0.942047 -0.031832 
16.487120 10.625180 61.146740 0.626180 0.077879 -0.775780 
-50.922260 10.483260 298.562897 -0.041475 0.989937 -0.135292 
-158.378098 11.407550 103.684402 0.544557 0.829322 0.125229 
225.802597 16.320150 37.590092 -0.544639 0.835945 -0.067558 
173.078293 16.488960 296.134613 -0.215294 0.895747 -0.388954 
-55.686279 5.000000 105.650398 -0.000000 1.000000 -0.000000 
-144.608093 14.927360 292.131714 0.266257 0.823022 -0.501739 
73.118500 5.000000 112.855904 0.000000 1.000000 0.000000 
-23.442751 5.000000 -24.362690 0.000000 1.000000 0.000000 
197.446304 6.375043 237.906998 -0.220393 0.973880 -0.054636 
-70.263870 5.000000 164.586502 0.000000 1.000000 0.000000 
80.099762 5.000000 23.659060 -0.000000 1.000000 -0.000000 
106.530098 7.194599 127.037201 0.965779 0.080977 -0.246400 
214.514603 9.627033 -13.271360 -0.419910 0.907541 -0.006747 
-24.779209 5.000000 -10.903090 0.000000 1.000000 0.000000 
202.791504 7.477905 233.577698 -0.317243 0.945163 -0.077613 
-24.091160 17.672581 -118.904900 0.116167 0.797343 0.592240 
22.791500 5.000000 160.366302 -0.000000 1.000000 -0.000000 
-79.959053 5.000000 189.605194 -0.000000 1.000000 -0.000000 
13.020230 15.788270 61.146740 0.203469 0.158452 -0.966175 
-147.888397 7.108899 31.195240 0.215652 0.976407 0.011127 
-38.616669 5.000000 -7.905472 -0.000000 1.000000 -0.000000 
-18.277679 5.000000 194.223099 0.000000 1.000000 0.000000 
-109.261497 15.912030 -94.224792 0.031839 0.704368 0.709121 
38.375309 5.000000 202.675201 0.000000 1.000000 0.000000 
156.848206 7.447514 280.134491 -0.041795 0.966916 -0.251649 
-66.655518 5.000000 77.055107 0.000000 1.000000 0.000000 
22.849609 6.479464 -104.385803 0.028181 0.972520 0.231108 
-33.573139 5.000000 124.097298 -0.000000 1.000000 -0.000000 
223.145798 14.448310 -4.240356 -0.520045 0.853859 -0.021854 
-102.124100 5.000000 241.734100 -0.000000 1.000000 -0.000000 
-27.502171 11.258490 -108.845703 0.113491 0.884236 0.453041 
142.327606 9.753770 -78.036667 -0.106382 0.876677 0.469170 
202.644394 14.110210 127.286499 -0.669506 0.742745 0.009609 
140.337906 6.041794 273.120605 0.013443 0.992668 -0.120123 
-120.922203 5.000000 251.629105 -0.000310 1.000000 -0.000244 
181.718796 9.464653 108.896301 -0.090003 0.883847 0.459035 
149.669800 18.758471 186.113297 -1.000000 -0.000000 -0.000000 
-114.796402 5.000000 236.516006 -0.000000 1.000000 -0.000000 
120.681503 6.115643 -75.511330 -0.092802 0.968898 0.229399 
-105.975601 5.000000 -12.763980 -0.009812 0.997923 0.063661 
-79.226097 5.000000 79.157822 0.000000 1.000000 0.000000 
95.398956 7.274160 123.969902 0.286427 0.506525 -0.813260 
213.866302 10.322850 194.296295 -0.437002 0.897975 0.051674 
221.632004 17.244280 71.624657 -0.602684 0.790458 -0.109310 
22.176180 5.000000 233.509995 -0.000000 1.000000 -0.000000 
112.802200 5.000000 67.675858 0.000000 1.000000 0.000000 
-157.594498 10.994500 29.532900 0.504572 0.862781 0.031887 
-140.205093 7.278611 277.291107 0.127152 0.956284 -0.263350 
-95.827942 7.599409 -48.906879 -0.000000 -0.000000 -1.000000 
-18.915569 5.000000 176.686096 0.000000 1.000000 0.000000 
109.653503 5.000000 43.438129 0.000000 1.000000 0.000000 
36.002110 19.667370 -130.061493 0.014299 0.794008 0.607739 
-101.230797 5.000000 9.908829 0.000000 1.000000 0.000000 
236.389297 16.316280 -71.799393 -0.154969 0.987786 -0.016207 
194.573807 6.053258 245.629700 -0.206092 0.977646 -0.041649 
83.772636 5.000000 61.693939 -0.000000 1.000000 -0.000000 
129.293106 16.164310 -39.135529 -1.000000 -0.000000 -0.000000 
-153.784698 6.520503 207.879898 0.221667 0.975081 -0.008965 
150.046707 14.424370 73.786453 -1.000000 -0.000000 -0.000000 
39.671082 5.000000 -2.823715 -0.000000 1.000000 -0.000000 
-164.863205 10.413530 139.809494 0.454052 0.883919 0.111913 
-151.743607 8.288460 62.212620 0.359153 0.932357 -0.041471 
-13.869770 16.714520 300.343201 -0.139296 0.978621 -0.151316 
151.711502 5.000000 51.180691 0.227591 0.684640 -0.692438 
-121.545700 5.000000 129.544800 0.000000 1.000000 0.000000 
46.099461 5.000000 86.532959 -0.000000 1.000000 -0.000000 
159.791595 16.374510 -4.546726 0.451094 0.022920 0.892182 
-172.823898 14.817590 140.403305 0.519828 0.839384 0.158787 
-41.695629 5.000000 73.428436 -0.000000 1.000000 -0.000000 
199.058701 6.177488 225.509201 -0.188132 0.981371 -0.038961 
-179.559296 16.286650 -106.957100 0.177110 0.806289 0.564385 
-36.289200 5.000000 181.176193 -0.000000 1.000000 -0.000000 
10.040690 6.219924 117.453300 0.053931 -0.006217 0.998525 
4.653442 7.800157 -106.975403 0.050399 0.950180 0.307601 
65.979828 5.083583 244.061295 0.002185 0.999686 -0.024954 
124.713203 5.000000 20.301929 -0.000000 1.000000 -0.000000 
-131.596695 5.000000 47.339199 0.034471 0.999404 0.001988 
16.196880 18.999359 117.453300 0.896929 -0.182833 0.402605 
55.561611 5.000000 13.359410 0.000000 1.000000 0.000000 
-93.257813 5.000000 175.264603 0.000000 1.000000 0.000000 
-100.203499 11.665970 312.884186 0.087286 0.992924 -0.080523 
-104.149300 13.237340 -17.493120 0.000000 0.000000 1.000000 
-31.721041 8.528361 281.488312 -0.102132 0.966688 -0.234697 
70.278053 5.000000 214.684204 0.000000 1.000000 0.000000 
-71.882736 6.160833 -80.414589 0.043952 0.981371 0.187029 
172.130096 19.420250 180.062103 0.702407 0.102529 -0.704353 
93.438393 5.000000 -14.151720 -0.000000 1.000000 -0.000000 
29.407650 5.138752 242.813705 -0.006691 0.999002 -0.044172 
21.963650 5.000000 213.314301 -0.000000 1.000000 -0.000000 
-143.298294 5.739962 -63.032459 0.106927 0.994072 -0.019683 
-147.823502 6.224577 -30.031401 0.171030 0.985188 0.012394 
-70.686859 5.000000 -65.549461 0.000227 1.000000 0.000216 
-35.405460 5.000000 8.494110 -0.000000 1.000000 -0.000000 
-151.071304 5.982694 200.808395 0.140340 0.990048 -0.010428 
95.484642 23.392559 123.969902 -0.000000 -0.000000 -1.000000 
103.211700 5.000000 14.153930 0.273824 0.957794 -0.087471 
154.463303 5.000000 108.131302 -0.000000 1.000000 -0.000000 
-83.190964 5.238534 268.753693 -0.015886 0.999244 -0.035475 
-63.504440 5.000000 143.693604 0.000000 1.000000 0.000000 
200.488403 12.215590 132.456604 -0.657137 0.752784 0.038583 
-145.842804 6.991129 79.644791 0.237109 0.971347 -0.016243 
29.937990 17.458420 -126.766502 0.051269 0.805881 0.589854 
-35.235569 5.979359 268.719604 -0.016514 0.994084 -0.107353 
152.623199 14.503850 -60.853260 -0.000000 -0.000000 -1.000000 
51.038540 5.000000 -6.179901 0.000000 1.000000 0.000000 
-95.226257 5.000000 27.432911 -0.000000 1.000000 -0.000000 
205.843506 6.756337 -18.911650 -0.233872 0.972230 0.008506 
109.381699 6.381453 269.392700 0.029473 0.984530 -0.172718 
-37.727970 5.507062 -87.387466 0.031008 0.994216 0.102823 
53.671360 5.000000 177.951401 -0.000000 1.000000 -0.000000 
217.563293 11.128910 -0.666519 -0.477280 0.878744 0.003643 
-112.789597 13.130300 108.230103 0.000000 0.000000 1.000000 
192.283600 7.462425 139.567001 -0.340130 0.938989 0.051097 
-43.001431 5.000000 -68.291946 0.000089 0.999996 0.002936 
-65.467422 5.000000 244.425797 -0.001366 0.999986 -0.005068 
-102.705597 5.000000 18.937010 0.000000 1.000000 0.000000 
-101.940399 5.000000 234.013199 -0.000000 1.000000 -0.000000 
-53.676029 5.000000 101.558502 0.000000 1.000000 0.000000 
-37.104801 5.000000 1.605270 -0.000000 1.000000 -0.000000 
-105.402496 11.965790 319.316803 0.116123 0.992451 0.039452 
-66.622787 5.000000 64.464920 -0.000000 1.000000 -0.000000 
147.492996 5.000000 89.156853 0.000000 1.000000 0.000000 
-158.395905 6.913063 170.331100 0.222199 0.975001 -0.000383 
-21.220980 5.211395 254.234497 -0.011117 0.998876 -0.046083 
-55.434490 18.931080 187.969894 -0.000000 -0.000000 -1.000000 
61.014919 11.440380 -84.130150 -0.114433 0.109129 -0.987419 
-40.295429 5.000000 46.105652 0.000000 1.000000 0.000000 
179.034897 5.119814 -59.284710 0.009187 0.999230 0.038150 
129.851898 5.000000 162.096298 -0.000000 1.000000 -0.000000 
84.208771 7.865652 272.522491 0.015880 0.975245 -0.220556 
3.823486 5.000000 -45.879131 0.000000 1.000000 0.000000 
-43.532822 5.000000 238.030701 0.000000 1.000000 0.000000 
204.844498 6.400124 28.201290 -0.215809 0.976420 -0.005487 
21.863070 16.225330 286.044312 -0.027777 0.952777 -0.302398 
149.332306 5.000000 138.149796 0.000000 1.000000 0.000000 
-169.568207 16.914129 -45.448090 0.580384 0.813847 0.028410 
77.130524 5.000000 112.143303 0.000000 1.000000 0.000000 
100.556503 16.632820 -106.980301 -0.379445 0.689377 0.617074 
79.196472 5.636730 -94.784554 -0.041410 0.993294 0.107943 
205.750107 10.764970 253.300705 -0.542722 0.833442 -0.104051 
76.090210 5.000000 23.268169 -0.000000 1.000000 -0.000000 
-159.602402 8.646994 225.012497 0.346212 0.938112 -0.009097 
-84.806488 5.000000 159.026001 0.000000 1.000000 0.000000 
78.580437 10.352470 282.240112 -0.007062 0.969935 -0.243262 
10.942440 5.000000 143.836807 -0.000000 1.000000 0.000000 
160.058197 5.000000 99.177429 -0.000000 1.000000 -0.000000 
56.563961 5.000000 158.775696 -0.000000 1.000000 -0.000000 
-35.442181 5.000000 46.105652 -0.000000 1.000000 -0.000000 
159.655701 6.276110 177.669800 0.080502 0.147747 -0.985744 
138.146805 9.725590 -79.102562 -0.141127 0.873017 0.466823 
24.813749 5.000000 65.428619 0.014267 0.999881 -0.005901 
-62.786621 5.000000 225.229507 -0.000000 1.000000 -0.000000 
31.861420 5.000000 228.182800 -0.000000 1.000000 -0.000000 
-6.741669 5.018311 243.857498 0.001180 0.999965 -0.008277 
-103.215103 5.000000 37.973862 -0.000000 1.000000 -0.000000 
34.314270 17.002331 -126.537102 0.036897 0.804938 0.592210 
185.336105 5.000000 42.658039 0.000000 1.000000 0.000000 
-38.215061 5.000000 118.198898 -0.000000 1.000000 -0.000000 
-179.836304 12.745310 -100.807297 0.252269 0.899205 0.357479 
171.745499 14.989650 52.893131 -0.000000 -0.000000 -1.000000 
-110.242203 16.349190 -48.906879 -0.052692 -0.005169 -0.998597 
-31.883421 5.000000 150.643097 0.000000 1.000000 0.000000 
-103.560204 5.000000 238.350998 0.000000 1.000000 0.000000 
-85.908691 5.000000 72.716713 0.000000 1.000000 0.000000 
200.967606 6.234801 215.522400 -0.169341 0.985282 -0.023305 
113.010002 11.798290 289.119995 0.004571 0.927470 -0.373869 
212.277893 20.138321 109.841400 -0.682261 0.691683 -0.236843 
-36.790890 5.000000 146.133301 -0.000000 1.000000 -0.000000 
178.265198 5.000000 32.854160 0.000000 1.000000 0.000000 
-76.421783 5.000000 45.638691 0.000000 1.000000 0.000000 
70.409790 5.000000 74.027969 -0.000000 1.000000 -0.000000 
-81.462311 5.000000 206.782898 -0.000000 1.000000 -0.000000 
-111.610199 10.864220 -87.857788 0.027478 0.848279 0.528835 
-173.906693 19.545980 233.287399 0.697911 0.716018 -0.015443 
-20.571211 7.030795 271.308014 -0.063361 0.977293 -0.202199 
-125.133499 5.000000 -6.684891 0.000000 1.000000 0.000000 
208.922302 16.901951 110.321503 -0.679936 0.697414 -0.226498 
-31.460569 6.483028 -94.971153 0.041319 0.980083 0.194243 
191.550995 5.149987 215.827103 -0.055949 0.998434 -0.000129 
-89.590668 10.719150 311.329987 0.048396 0.992946 -0.108239 
200.316605 5.755532 35.366032 -0.112458 0.993595 -0.011048 
-151.862595 7.238287 116.055603 0.224116 0.973720 0.040523 
-43.760479 5.000000 -2.199539 0.000000 1.000000 0.000000 
-17.437269 5.000000 -51.043678 0.185292 0.980844 0.060094 
-124.863403 5.000000 -11.443190 -0.000000 1.000000 -0.000000 
-42.177052 5.000000 12.820920 0.000000 1.000000 0.000000 
108.512604 5.000000 10.768040 0.000000 1.000000 0.000000 
-148.084198 5.533081 187.123703 0.095902 0.995391 0.000015 
181.919098 5.000000 44.971180 -0.000643 0.999941 -0.010811 
-162.638504 11.805530 -59.351082 0.474039 0.874806 -0.100011 
84.860138 5.000000 241.691498 0.000116 0.999994 -0.003528 
53.153229 5.000000 158.595596 -0.000000 1.000000 -0.000000 
-139.955200 5.020863 138.152695 0.061071 0.998129 -0.003053 
197.041702 5.418757 36.851120 -0.102440 0.994710 -0.007556 
78.345703 11.216430 285.638489 -0.013401 0.972093 -0.234212 
-153.312805 6.567935 217.824493 0.212541 0.977107 -0.009351 
81.758087 5.000000 46.105679 0.000000 1.000000 0.000000 
-69.189758 8.109171 290.624908 -0.090288 0.985258 -0.145309 
-38.971649 5.000000 11.321380 -0.000000 1.000000 -0.000000 
-130.054703 5.000000 113.973099 0.008600 0.999955 0.003973 
170.550293 18.578180 305.950714 -0.210441 0.966550 -0.146612 
9.560130 15.274150 117.453300 0.000000 0.000000 1.000000 
-39.162731 13.049970 -108.654297 0.186237 0.816205 0.546924 
-4.394348 5.000000 21.945530 -0.000000 1.000000 -0.000000 
144.224899 20.810499 -4.546728 0.000000 0.000000 1.000000 
91.069839 16.549740 213.596100 -1.000000 -0.000000 -0.000000 
-93.994568 5.000000 105.116997 0.003178 0.999995 -0.000875 
102.141800 10.739380 285.436310 0.032720 0.950179 -0.309983 
-139.936203 5.223153 112.179100 0.096445 0.995099 0.021813 
-81.838028 5.000000 50.054661 -0.000000 1.000000 -0.000000 
13.987150 5.000000 147.060303 -0.000000 1.000000 -0.000000 
-130.360901 5.448568 267.946991 0.012986 0.996152 -0.086670 
192.187500 5.858367 167.381500 -0.119191 0.992489 0.027539 
26.387421 5.000000 -9.017456 0.000000 1.000000 0.000000 
131.242493 5.000000 71.759140 0.000000 1.000000 0.000000 
-3.106476 15.224250 290.390106 -0.088973 0.943126 -0.320309 
33.721561 11.247060 -118.055801 0.039387 0.856167 0.515196 
121.904800 12.378940 290.716003 0.011439 0.903683 -0.428049 
118.219597 5.000000 83.184250 0.000000 1.000000 0.000000 
20.383089 5.000000 5.198227 0.000000 1.000000 0.000000 
93.109947 5.068551 245.201706 -0.004897 0.999906 -0.012825 
-102.615601 16.811291 131.369904 -0.000000 -0.000000 -1.000000 
15.858760 5.000000 -41.966999 -0.000000 1.000000 -0.000000 
146.570602 5.000000 134.826004 0.000000 1.000000 0.000000 
-122.438202 5.000000 51.498489 -0.000000 1.000000 -0.000000 
-81.084488 5.000000 90.852951 0.000000 1.000000 0.000000 
-79.887238 5.000000 94.310997 -0.000000 1.000000 -0.000000 
-17.948879 5.000000 247.359802 -0.000088 1.000000 -0.000017 
84.069839 12.536670 142.768204 -0.850984 -0.022905 0.524692 
-122.321999 5.000000 23.365391 -0.000000 1.000000 -0.000000 
-120.495102 5.000000 209.094101 -0.000000 1.000000 -0.000000 
-10.107510 5.000000 170.770996 -0.000000 1.000000 -0.000000 
124.754097 5.000000 141.890396 0.000000 1.000000 0.000000 
-119.339600 5.000000 -52.601898 -0.047711 0.958331 -0.281649 
211.928406 8.535007 1.952805 -0.362939 0.931707 0.014010 
62.349701 5.000000 190.787292 0.000000 1.000000 0.000000 
-101.020302 5.000000 69.552727 0.000000 1.000000 0.000000 
-10.130920 5.000000 156.077194 -0.000000 1.000000 -0.000000 
23.191010 8.575714 266.333405 -0.026388 0.960986 -0.275336 
-1.823273 5.000000 49.258030 0.000000 1.000000 0.000000 
117.680901 5.000000 55.222370 -0.000000 1.000000 -0.000000 
-31.153490 5.002902 247.287598 -0.000061 0.999943 -0.010642 
161.931595 6.572485 52.893131 0.028110 0.612697 -0.789818 
-112.753304 12.462000 321.275787 0.130483 0.988377 0.078003 
208.511795 8.888611 225.526093 -0.371343 0.924170 -0.089518 
-66.477890 6.713190 -17.493120 -0.026642 0.195064 0.980429 
193.853302 6.963603 262.170685 -0.208730 0.971395 -0.113242 
172.130096 12.663720 177.806000 0.693394 -0.004979 -0.720541 
18.953190 5.000000 32.219299 0.000000 1.000000 0.000000 
100.909103 5.000000 192.184097 0.000000 1.000000 0.000000 
-11.856810 18.527020 117.453300 -0.024531 -0.042238 0.998806 
223.253601 14.458440 34.932331 -0.534316 0.843972 -0.047100 
161.408707 5.886668 -66.091888 0.034068 0.819820 -0.571606 
33.346249 14.642610 283.612396 0.151441 0.952304 -0.264918 
-34.147049 5.000000 178.130295 0.000000 1.000000 0.000000 
209.241699 12.972050 251.888504 -0.575698 0.809681 -0.113967 
46.755219 5.000000 -23.771910 0.000000 1.000000 0.000000 
76.570923 5.000000 -2.840683 0.000000 1.000000 0.000000 
-29.025410 5.000000 134.677902 0.000000 1.000000 0.000000 
-106.003098 12.022990 308.897614 0.146044 0.982776 -0.113233 
-2.875977 5.000000 -1.453903 0.000000 1.000000 0.000000 
56.669849 6.011574 -79.716270 0.475402 0.782447 -0.402206 
1.829910 5.000000 47.245251 -0.000000 1.000000 -0.000000 
13.390080 5.068345 242.965195 -0.016059 0.999294 -0.033976 
84.069839 16.682470 139.438004 -1.000000 -0.000000 -0.000000 
-53.287258 5.000000 43.256901 -0.000000 1.000000 -0.000000 
-10.670060 13.072330 286.575989 -0.105910 0.926835 -0.360221 
216.480392 15.492550 84.745407 -0.582382 0.794293 -0.173002 
74.037811 5.000000 44.831341 -0.000000 1.000000 -0.000000 
-164.475098 10.469510 206.617004 0.461292 0.886131 -0.044515 
-116.053299 6.229858 -23.328920 -0.877130 0.477719 -0.049261 
64.228302 5.000000 160.649796 0.000000 1.000000 0.000000 
-56.425190 11.999940 187.969894 -0.000000 -0.000000 -1.000000 
82.700439 5.000000 -0.023453 -0.000000 1.000000 -0.000000 
104.245003 5.701892 -80.860832 -0.099208 0.975982 0.193953 
189.168793 5.230382 239.184494 -0.090811 0.995817 -0.010124 
134.389008 5.000000 69.010040 -0.000000 1.000000 -0.000000 
41.024200 5.000000 62.231781 -0.000000 1.000000 -0.000000 
-26.469351 5.143565 253.685593 -0.002925 0.999176 -0.040482 
-157.977707 7.747415 213.335999 0.306357 0.951632 -0.023291 
-96.289513 5.000000 208.909500 0.000000 1.000000 0.000000 
-162.999603 12.706310 -2.441467 0.543633 0.833536 -0.098396 
-2.998631 11.903850 61.146740 -0.000000 -0.000000 -1.000000 
-158.872498 11.876380 24.239210 0.534393 0.845188 0.009003 
133.549606 5.000000 169.177505 -0.000000 1.000000 -0.000000 
216.349594 10.446260 6.773804 -0.435670 0.900008 0.013294 
119.832298 5.974461 269.088104 0.029305 0.987543 -0.154600 
160.706894 7.128345 -11.121680 1.000000 0.000000 0.000000 
26.050720 5.000000 130.062500 0.000000 1.000000 0.000000 
69.399651 6.563801 -61.669849 0.000000 0.000000 1.000000 
-100.896797 8.133014 293.502502 0.086297 0.973957 -0.209666 
81.088013 5.000000 155.483902 0.000000 1.000000 0.000000 
-38.983761 5.837725 267.783813 -0.013830 0.995502 -0.093720 
-173.232101 14.368110 188.170593 0.538740 0.836683 -0.098588 
-75.947853 5.000000 199.037704 -0.000000 1.000000 -0.000000 
1.047180 5.000000 189.406906 -0.000000 1.000000 -0.000000 
-161.609604 7.939195 156.221207 0.305249 0.951633 0.034883 
-171.110306 11.585060 162.063599 0.435403 0.900123 0.014242 
54.581120 5.000000 73.259193 0.000000 1.000000 0.000000 
112.992302 5.000000 173.894699 -0.000000 1.000000 -0.000000 
63.930019 10.769640 284.308105 0.021082 0.979537 -0.200155 
-128.828796 5.000000 -11.165880 0.003396 0.999985 -0.004374 
104.278900 5.000000 63.473400 -0.000000 1.000000 -0.000000 
129.293106 19.033609 -55.388531 -0.993531 -0.113561 -0.000657 
-62.121201 5.615217 -48.906879 0.206432 0.237648 -0.949163 
-140.822495 5.903834 71.326141 0.170493 0.985217 -0.016725 
-7.172100 11.903850 61.146740 -0.000000 -0.000000 -1.000000 
160.809006 16.239479 84.306877 0.000000 0.000000 1.000000 
132.952805 5.000000 193.379807 -0.000000 1.000000 -0.000000 
-9.654572 5.293008 253.969101 -0.010318 0.998595 -0.051976 
186.732193 5.030258 -57.873249 -0.007801 0.999852 0.015311 
197.805298 11.601500 278.160889 -0.309440 0.905593 -0.290083 
9.187286 10.815240 -114.350098 0.072845 0.859450 0.506003 
-9.758682 5.000000 52.223560 -0.000000 1.000000 -0.000000 
-128.788696 5.000000 73.068703 0.004484 0.999987 -0.002574 
-45.869862 15.201550 202.177505 1.000000 0.000000 0.000000 
137.848404 16.556721 -4.546730 0.000000 0.000001 1.000000 
11.317980 5.000000 50.936920 0.000000 1.000000 0.000000 
217.341995 10.801020 29.370859 -0.465449 0.884767 -0.023329 
80.559937 5.000000 208.548203 0.000000 1.000000 0.000000 
82.138092 5.000000 -24.210390 0.000000 1.000000 0.000000 
29.315729 5.000000 10.451860 -0.000000 1.000000 -0.000000 
30.619539 6.777308 259.122101 0.014506 0.985496 -0.169076 
-5.269852 9.230389 -75.028671 0.989882 0.134023 -0.046594 
-27.208651 5.000000 9.612503 0.000000 1.000000 0.000000 
78.640137 7.314125 269.916595 0.006343 0.975080 -0.221763 
-181.646500 19.718149 186.729507 0.531182 0.836632 -0.133760 
155.641098 7.130796 84.306877 0.078215 0.366771 0.927018 
-109.188202 10.160070 297.705505 0.140154 0.957427 -0.252370 
88.954826 5.000000 76.095062 0.000000 1.000000 0.000000 
-110.948898 5.000000 -7.676758 -0.000000 1.000000 -0.000000 
-62.144119 5.000000 -3.775803 0.000000 1.000000 0.000000 
135.682999 5.000000 83.813400 0.000000 1.000000 0.000000 
167.604706 9.780630 -77.269119 -0.100431 0.827308 0.552698 
16.508789 5.000000 12.114820 0.000000 1.000000 0.000000 
93.287354 5.000000 87.356628 -0.000000 1.000000 -0.000000 
88.107567 5.000000 178.696396 0.000000 1.000000 0.000000 
-154.389297 8.415785 -53.975300 0.287428 0.957595 -0.019912 
-150.169205 7.331831 6.701630 0.312518 0.948872 -0.044432 
24.752171 5.000000 43.544312 -0.000000 1.000000 -0.000000 
116.631302 5.000000 69.145683 0.000000 1.000000 0.000000 
170.457199 7.495494 276.160614 -0.077455 0.969438 -0.232791 
139.697906 18.714939 303.982086 0.078392 0.886708 -0.455636 
-10.709340 5.000000 -7.265472 -0.000000 1.000000 -0.000000 
-103.322800 5.000000 176.385696 -0.000000 1.000000 -0.000000 
123.296700 5.000000 193.274399 -0.000000 1.000000 -0.000000 
188.202896 7.939012 272.593994 -0.134555 0.960596 -0.243208 
80.134918 5.000000 -49.493580 -0.000000 1.000000 -0.000000 
2.137527 8.690958 -109.071098 0.033877 0.925677 0.376794 
-58.510681 5.000000 81.452972 0.000000 1.000000 0.000000 
-123.830200 17.102810 101.589500 -0.999810 0.006963 0.018196 
-126.829201 5.000000 -53.424999 -0.000000 1.000000 -0.000000 
-127.879402 5.000000 253.923798 0.001076 0.999995 -0.003085 
135.748306 5.000000 58.458012 0.000000 1.000000 0.000000 
188.337006 5.875375 153.254105 -0.156105 0.986537 0.048744 
198.335297 7.537374 255.285995 -0.302863 0.949574 -0.081143 
16.606859 10.213750 117.446701 0.697058 0.400018 0.595059 
-164.450897 18.362560 84.885513 0.658898 0.751047 0.042211 
156.584793 14.352000 298.006287 -0.013952 0.911825 -0.410342 
162.440002 13.204920 84.306877 0.000000 0.000000 1.000000 
-18.532749 5.969509 -95.822144 0.035205 0.983563 0.177101 
150.046707 16.468161 63.755112 -1.000000 -0.000000 -0.000000 
-73.962303 5.000000 -2.949387 -0.000000 1.000000 -0.000000 
54.532139 5.000000 222.637405 0.000000 1.000000 0.000000 
129.293106 16.747120 -12.105570 -1.000000 -0.000000 -0.000000 
-14.992200 5.000000 147.481705 -0.000000 1.000000 -0.000000 
208.464798 9.375142 177.470200 -0.394538 0.912638 0.106914 
34.303890 5.000000 73.642807 0.000000 1.000000 0.000000 
63.301182 5.000000 109.067101 0.000000 1.000000 0.000000 
76.221588 5.000000 89.931877 -0.000000 1.000000 -0.000000 
84.659393 14.036600 146.430206 -0.175189 0.201726 0.963647 
-102.570900 5.000000 203.640793 -0.000000 1.000000 -0.000000 
220.593796 13.787740 195.360107 -0.477785 0.877104 0.049095 
135.406799 5.000000 204.171494 0.000000 1.000000 0.000000 
-38.274811 5.000000 90.395752 -0.000000 1.000000 -0.000000 
-72.552338 6.493406 -48.906879 -0.000000 -0.000000 -1.000000 
196.714294 9.809181 130.213593 -0.493555 0.869654 -0.010231 
-164.568207 11.322180 131.684692 0.510892 0.850885 0.122412 
94.405853 7.115881 270.672791 0.035210 0.978975 -0.200920 
91.069839 19.713091 216.076706 -1.000000 -0.000000 -0.000000 
-134.241501 5.042202 -41.688599 0.045183 0.998978 0.000894 
129.436096 15.172970 -89.567299 -0.257518 0.709305 0.656179 
80.028809 5.000000 -27.388580 -0.000000 1.000000 -0.000000 
-153.535095 6.321021 144.665802 0.188497 0.981532 0.032618 
75.514130 5.000000 170.550903 -0.000000 1.000000 -0.000000 
-112.192200 5.000000 3.691177 -0.000000 1.000000 -0.000000 
182.065506 18.974480 84.306877 0.000000 0.000000 1.000000 
74.419456 5.000000 156.516205 -0.000000 1.000000 -0.000000 
6.002167 5.000000 -86.723824 -0.000000 1.000000 -0.000000 
97.434387 6.841669 269.796204 0.029339 0.979242 -0.200558 
-118.495003 5.000000 77.823547 0.000000 1.000000 0.000000 
60.038300 12.744800 -118.935898 -0.124806 0.825458 0.550493 
122.095200 5.000000 244.455200 0.001352 0.999986 -0.005059 
-63.024841 5.392831 263.101410 -0.006842 0.999089 -0.042125 
10.739670 6.387515 259.818207 -0.042518 0.986358 -0.159028 
-34.465271 5.000000 -72.194443 0.000680 0.999996 0.002905 
79.006531 15.862300 -116.476700 -0.247025 0.727032 0.640627 
-37.849270 5.000000 -29.665340 -0.000000 1.000000 -0.000000 
89.753418 5.000000 70.412827 -0.000000 1.000000 -0.000000 
-76.668381 6.012818 277.969513 -0.047119 0.995373 -0.083737 
-63.959579 5.000000 184.784103 -0.083280 0.977508 -0.193760 
20.162260 5.000000 42.661419 -0.000000 1.000000 -0.000000 
-92.869858 15.726050 146.208603 -1.000000 -0.000000 -0.000000 
-168.516098 10.388290 160.606400 0.405734 0.913685 0.023666 
123.458298 11.733250 -87.828438 -0.266606 0.786285 0.557384 
154.665298 20.211420 177.669800 -0.000000 -0.000000 -1.000000 
-168.621597 14.447230 241.268402 0.619233 0.784997 0.018177 
-20.830231 11.488410 -110.707603 0.095478 0.867495 0.488198 
2.052765 7.320017 -105.068100 0.045959 0.945290 0.322977 
207.893204 18.146061 118.350304 -0.705094 0.692307 -0.153468 
-12.390610 5.000000 139.136703 0.000000 1.000000 0.000000 
-141.459198 5.000000 236.642899 0.000143 1.000000 0.000137 
-117.552902 5.000000 160.461304 -0.018581 0.999767 0.010961 
-41.470310 5.226624 -81.664040 0.019743 0.998529 0.050505 
206.353302 21.123190 65.644447 1.000000 0.000000 0.000000 
61.557308 5.000000 121.670303 0.000000 1.000000 0.000000 
90.555733 7.636763 -97.873802 -0.189334 0.918784 0.346393 
62.526180 5.000000 2.780655 -0.000000 1.000000 -0.000000 
206.531296 9.294811 171.144897 -0.396701 0.909650 0.123146 
149.669800 6.453579 199.197403 -0.550091 0.827795 0.110252 
128.110596 5.000000 40.868698 0.000000 1.000000 0.000000 
-35.561069 5.000000 152.822693 -0.000000 1.000000 -0.000000 
-165.916107 13.931130 -39.766781 0.536945 0.841632 0.057850 
-4.859482 5.000000 -40.840130 0.000000 1.000000 0.000000 
237.178101 16.686171 -66.627319 -0.152905 0.983652 -0.095128 
-62.540760 5.000000 76.391403 -0.000000 1.000000 -0.000000 
0.499298 5.000000 196.912994 -0.000000 1.000000 -0.000000 
95.636864 5.184647 201.569794 -0.091102 0.801496 -0.591020 
131.836395 9.244255 -60.853271 -0.324024 0.108484 -0.939808 
16.606871 18.673981 103.896103 1.000000 0.000000 0.000000 
-177.468094 19.426729 201.982300 0.617486 0.776684 -0.124389 
92.941978 7.307659 17.546221 -0.484377 0.860137 0.159822 
192.023499 5.752031 247.676193 -0.174272 0.983985 -0.037444 
210.764496 10.522990 77.637466 -0.490163 0.865346 -0.104481 
3.580536 5.000000 159.703705 -0.000000 1.000000 -0.000000 
23.735929 5.000000 146.641205 0.000000 1.000000 0.000000 
37.455379 5.000000 0.184647 -0.000000 1.000000 -0.000000 
-74.220261 5.000000 78.224091 0.000000 1.000000 0.000000 
131.594696 5.000000 61.573971 -0.000000 1.000000 -0.000000 
124.748802 7.993551 279.957489 0.034394 0.968013 -0.248533 
33.801762 5.000000 -45.355831 0.000000 1.000000 0.000000 
-167.197800 19.553761 97.254822 0.666951 0.734402 0.125820 
-59.241070 18.805630 187.969894 -0.000000 -0.000000 -1.000000 
3.480743 5.000000 209.041000 0.000000 1.000000 0.000000 
-20.719879 5.000000 143.067093 0.000000 1.000000 0.000000 
213.591293 12.215050 77.631577 -0.530698 0.838408 -0.124223 
230.319901 16.716080 -54.047421 -0.317244 0.942984 -0.100683 
37.678162 5.000000 16.863951 0.000000 1.000000 0.000000 
105.223297 5.000000 18.605240 0.171692 0.977677 0.121115 
170.679199 11.223080 52.893131 -0.000000 -0.000000 -1.000000 
2.971390 5.000000 212.682404 -0.000000 1.000000 -0.000000 
212.170197 11.002400 74.682007 -0.522236 0.846554 -0.103032 
219.303894 13.442840 53.007229 -0.531120 0.844870 -0.064079 
192.712799 6.168506 97.495911 -0.228675 0.970797 -0.072528 
-172.264893 19.209669 -111.580704 0.039692 0.742272 0.668922 
8.832916 5.000000 202.209198 -0.000000 1.000000 -0.000000 
164.088898 11.867270 -79.938210 0.076426 0.787221 0.611917 
-161.813599 8.384440 148.407593 0.344453 0.936344 0.067908 
47.664921 5.000000 -3.759140 0.000000 1.000000 0.000000 
-0.452271 7.502107 268.627502 -0.064502 0.971507 -0.228063 
-61.975780 5.000000 232.248901 0.000000 1.000000 0.000000 
49.534851 5.000000 107.416298 0.000000 1.000000 0.000000 
64.299530 5.933787 259.664398 0.012474 0.996181 -0.086414 
-170.412506 19.087320 46.749401 0.593981 0.804399 0.011351 
-70.997971 5.000000 160.596100 0.000000 1.000000 0.000000 
-146.388504 6.150627 -62.311600 0.160770 0.986498 -0.031228 
221.528107 14.293040 210.061493 -0.506117 0.860653 -0.055879 
70.247131 5.000000 -14.136950 -0.000000 1.000000 -0.000000 
27.171721 5.000000 138.047806 0.000000 1.000000 0.000000 
229.241806 17.205139 -36.436901 -0.375253 0.926425 -0.030369 
-39.116459 5.000000 152.529007 0.000000 1.000000 0.000000 
44.482792 5.000000 4.321335 -0.000000 1.000000 -0.000000 
65.347633 5.000000 0.633148 0.000000 1.000000 0.000000 
92.351807 12.739950 291.729706 -0.015774 0.963054 -0.268847 
3.351044 13.503740 284.091309 -0.116395 0.924444 -0.363119 
22.445129 5.000000 61.636631 0.014267 0.999881 -0.005901 
193.421906 5.146353 35.981091 -0.074747 0.997169 -0.008198 
112.850098 5.000000 16.193701 -0.000000 1.000000 -0.000000 
18.925421 5.000000 -40.402859 0.000000 1.000000 0.000000 
-0.200501 5.000000 171.340500 0.000000 1.000000 0.000000 
-62.892262 8.597584 289.955109 -0.083158 0.984947 -0.151538 
209.955093 16.003139 264.846405 -0.625780 0.764382 -0.155305 
16.606871 27.979919 105.515800 1.000000 0.000000 0.000000 
-69.877518 14.145830 -97.984177 0.169929 0.785298 0.595341 
-1.903793 5.000000 -5.618958 -0.000000 1.000000 -0.000000 
-55.985611 7.365498 -89.818947 0.125000 0.937665 0.324282 
-60.279362 5.000000 58.909260 -0.000000 1.000000 -0.000000 
16.606871 12.323180 80.292580 1.000000 0.000000 0.000000 
-59.566730 6.217277 273.016907 -0.015238 0.993385 -0.113815 
-86.959320 5.000000 237.624802 0.000000 1.000000 0.000000 
140.764496 5.000000 33.271938 -0.000000 1.000000 -0.000000 
-36.769550 5.000000 224.076004 0.000000 1.000000 0.000000 
-99.555794 5.000000 175.163803 0.000000 1.000000 0.000000 
2.323364 5.000000 -18.739969 0.000000 1.000000 0.000000 
24.554199 5.000000 171.527603 0.000000 1.000000 0.000000 
-122.076897 5.100245 -69.052071 -0.002189 0.997173 0.075114 
-121.533699 5.000000 19.716169 -0.000000 1.000000 -0.000000 
82.588562 5.000000 -4.967468 0.000000 1.000000 0.000000 
29.643591 5.000000 23.222401 0.000000 1.000000 0.000000 
65.169006 5.000000 94.158287 0.000000 1.000000 0.000000 
123.554001 5.000000 155.761703 -0.000000 1.000000 -0.000000 
-170.615707 13.780050 138.314697 0.502304 0.853727 0.137266 
209.059998 10.299000 83.074860 -0.489979 0.862700 -0.125175 
162.950897 5.000000 46.404530 0.028305 0.995223 -0.093433 
150.046707 7.484608 54.449211 -0.258726 0.923836 -0.282113 
111.365997 5.000000 2.441833 0.000000 1.000000 0.000000 
-89.326279 5.027665 257.397186 -0.002264 0.999983 -0.005290 
-49.699051 7.160707 -91.309380 0.108446 0.944735 0.309379 
78.420197 5.000000 51.538239 0.000000 1.000000 0.000000 
-59.293751 5.000000 239.229797 -0.000000 1.000000 -0.000000 
-105.752800 19.591120 -17.493120 0.000000 0.000000 1.000000 
205.578705 16.893869 132.018204 -0.696486 0.716762 0.034051 
160.469604 5.491488 266.877991 -0.018634 0.997317 -0.070796 
-113.707802 5.000000 -60.302311 0.000851 0.999972 0.007503 
-158.663803 8.337519 243.725296 0.317501 0.948196 0.010868 
-131.685196 5.812340 -74.910896 -0.004469 0.986900 0.161272 
56.098789 5.000000 7.198608 0.000000 1.000000 0.000000 
-138.133301 5.367264 -60.998112 0.060270 0.998151 -0.007831 
63.760738 5.000000 232.899506 -0.000673 0.999999 -0.001281 
106.501099 5.000000 234.335495 -0.000000 1.000000 -0.000000 
-22.260889 5.000000 68.884308 -0.007064 0.999970 0.003046 
-153.055496 17.918480 292.028992 0.280967 0.786769 -0.549592 
-69.156372 5.000000 62.485458 -0.000000 1.000000 -0.000000 
-22.693979 5.000000 23.999069 0.000000 1.000000 0.000000 
62.751919 5.000000 23.958509 -0.000000 1.000000 -0.000000 
-50.945889 5.000000 -56.423180 0.000000 1.000000 0.000000 
2.935577 5.000000 -35.117771 0.000000 1.000000 0.000000 
-122.403801 5.000000 -48.111889 -0.009016 0.999893 -0.011554 
-110.382103 5.000000 194.729996 -0.000000 1.000000 -0.000000 
-151.343994 5.922483 196.230804 0.123345 0.992232 -0.016166 
41.981960 5.000000 219.601807 -0.000000 1.000000 -0.000000 
12.134030 5.000000 -19.723940 0.000000 1.000000 0.000000 
164.501999 10.763150 287.644714 -0.150628 0.907978 -0.391009 
-106.412498 5.000000 166.250595 0.000000 1.000000 0.000000 
-54.252331 5.000000 63.618092 0.000000 1.000000 0.000000 
83.700592 5.000000 190.586899 -0.000000 1.000000 -0.000000 
19.626530 19.155519 -128.050400 0.080159 0.802937 0.590649 
105.098602 5.000000 52.912540 -0.000000 1.000000 -0.000000 
-90.772842 5.000000 81.384293 -0.000000 1.000000 -0.000000 
-84.490707 5.000000 190.568497 -0.000000 1.000000 -0.000000 
-26.941441 6.255219 -95.449677 0.047773 0.981695 0.184371 
-131.936203 5.006163 34.248810 0.013088 0.999913 -0.001833 
-60.752701 5.000000 79.142403 0.000000 1.000000 0.000000 
-61.333889 5.000000 95.393860 0.000000 1.000000 0.000000 
-136.236694 5.108981 -15.754410 0.044180 0.999015 0.004049 
-56.524990 11.720440 -99.308922 0.217139 0.838629 0.499551 
-160.098404 14.549280 85.372681 0.614752 0.787954 0.034749 
-109.665604 5.000000 202.134094 -0.000000 1.000000 -0.000000 
157.223404 5.677517 269.829407 -0.020070 0.994391 -0.103848 
-149.796494 7.481541 39.542080 0.314656 0.949013 0.019129 
47.597500 5.377948 249.398300 0.010029 0.998604 -0.051863 
130.130707 5.000000 228.192703 0.000000 1.000000 0.000000 
-92.773064 6.091747 283.777405 0.014243 0.993027 -0.117021 
188.377594 6.272585 115.182602 -0.280076 0.958422 -0.054639 
51.181271 5.000000 180.807800 0.000000 1.000000 0.000000 
-92.339943 5.000000 46.895390 -0.000000 1.000000 -0.000000 
95.039886 5.000000 152.530304 -0.014199 0.975080 0.221398 
-6.189026 5.000000 149.287292 -0.000000 1.000000 -0.000000 
20.957790 5.000000 140.783905 -0.000000 1.000000 -0.000000 
84.977722 15.877160 -114.128502 -0.272932 0.732195 0.624018 
-67.455292 5.000000 176.156204 0.000000 1.000000 0.000000 
124.991203 5.000000 10.678880 -0.000000 1.000000 -0.000000 
81.228493 6.814961 267.517212 0.017788 0.982716 -0.184263 
75.052643 5.000000 115.989700 -0.000000 1.000000 -0.000000 
74.244873 19.094999 -121.634300 -0.249836 0.708204 0.660325 
-59.062592 8.970174 290.711212 -0.051213 0.986169 -0.157632 
-169.703705 15.396270 228.527100 0.645553 0.763361 -0.023267 
-159.680603 11.395750 109.632401 0.523305 0.844579 0.113306 
155.491699 5.018312 255.599197 -0.003703 0.999857 -0.016509 
153.340195 5.000000 130.893600 0.000000 1.000000 0.000000 
88.148590 5.754998 260.302612 0.014982 0.996387 -0.083595 
-36.441212 5.000000 192.466202 -0.000000 1.000000 -0.000000 
210.954605 8.114607 33.287899 -0.350930 0.936272 -0.015558 
-116.053299 15.743010 -23.789930 -1.000000 0.000034 0.000108 
-158.039902 6.861526 166.188202 0.215208 0.976537 -0.007770 
74.637016 14.641820 -116.656601 -0.220414 0.771472 0.596866 
-0.975266 15.044290 61.146740 -0.000000 -0.000000 -1.000000 
-66.171738 5.000000 149.394302 -0.000000 1.000000 -0.000000 
194.978699 8.736626 136.184097 -0.444705 0.895146 0.030855 
38.356049 5.000000 198.851700 0.000000 1.000000 0.000000 
-163.931000 8.273487 -92.113083 0.041527 0.988210 0.147363 
70.697998 5.000000 -10.478410 0.000000 1.000000 0.000000 
197.411102 5.643959 202.862106 -0.131602 0.991136 0.018163 
-178.994705 10.491280 -91.435226 0.273420 0.953050 0.130147 
-126.051804 5.000000 173.196503 -0.000000 1.000000 -0.000000 
-82.286537 6.069668 281.716492 -0.040844 0.994386 -0.097616 
211.912003 8.766508 -37.003990 -0.362448 0.931996 -0.003737 
209.471497 10.249590 174.189606 -0.425125 0.896726 0.123088 
120.807999 10.648460 286.835510 0.030413 0.915911 -0.400228 
-173.237198 17.213539 -63.135441 0.499411 0.821587 -0.274925 
-12.415570 5.000000 -11.683300 -0.000000 1.000000 -0.000000 
99.937263 5.000000 70.409241 0.000000 1.000000 0.000000 
-99.573776 8.995166 297.981903 0.092991 0.971431 -0.218345 
68.967987 5.000000 188.516296 -0.000000 1.000000 -0.000000 
186.841095 12.203790 52.893131 -0.000000 -0.000000 -1.000000 
16.606871 19.373421 75.689827 1.000000 0.000000 0.000000 
-124.641098 5.000000 26.253370 -0.000000 1.000000 -0.000000 
-87.125107 10.844380 313.266113 0.006238 0.993486 -0.113788 
-7.970627 8.822923 275.218811 -0.065592 0.948154 -0.310968 
0.177017 5.000000 36.030300 -0.000000 1.000000 -0.000000 
